ply
format ascii 1.0
element vertex 1406
property float x
property float y
property float z
property uchar red
property uchar green 
property uchar blue
element face 0
end_header
0.479940 -1.212030 0.150430 0 0 0
0.479940 -1.194840 0.150430 0 0 0
0.479940 -1.160460 0.150430 0 0 0
0.479940 -1.143270 0.150430 0 0 0
0.479940 -1.126070 0.150430 0 0 0
0.494270 -1.229230 0.150430 0 0 0
0.494270 -1.212030 0.150430 0 0 0
0.494270 -1.143270 0.150430 0 0 0
0.494270 -1.126070 0.150430 0 0 0
0.508600 -1.212030 0.150430 0 0 0
0.508600 -1.194840 0.150430 0 0 0
0.508600 -1.177650 0.150430 0 0 0
0.508600 -1.160460 0.150430 0 0 0
0.508600 -1.143270 0.150430 0 0 0
0.508600 -1.126070 0.150430 0 0 0
0.236390 -1.555870 0.157590 0 0 0
0.236390 -1.538680 0.157590 0 0 0
0.250720 -1.590260 0.157590 0 0 0
0.250720 -1.573070 0.157590 0 0 0
0.250720 -1.555870 0.157590 0 0 0
0.250720 -1.538680 0.157590 0 0 0
0.265040 -1.607450 0.157590 0 0 0
0.265040 -1.590260 0.157590 0 0 0
0.265040 -1.538680 0.157590 0 0 0
0.265040 -1.521490 0.157590 0 0 0
0.279370 -1.590260 0.157590 0 0 0
0.279370 -1.573070 0.157590 0 0 0
0.279370 -1.555870 0.157590 0 0 0
0.279370 -1.538680 0.157590 0 0 0
0.279370 -1.521490 0.157590 0 0 0
0.293700 -1.573070 0.157590 0 0 0
0.293700 -1.555870 0.157590 0 0 0
0.465620 -1.212030 0.157590 0 0 0
0.465620 -1.194840 0.157590 0 0 0
0.465620 -1.177650 0.157590 0 0 0
0.465620 -1.160460 0.157590 0 0 0
0.479940 -1.212030 0.157590 0 0 0
0.479940 -1.194840 0.157590 0 0 0
0.479940 -1.160460 0.157590 0 0 0
0.479940 -1.143270 0.157590 0 0 0
0.479940 -1.126070 0.157590 0 0 0
0.494270 -1.229230 0.157590 0 0 0
0.494270 -1.212030 0.157590 0 0 0
0.494270 -1.143270 0.157590 0 0 0
0.508600 -1.212030 0.157590 0 0 0
0.508600 -1.194840 0.157590 0 0 0
0.508600 -1.177650 0.157590 0 0 0
0.508600 -1.160460 0.157590 0 0 0
0.508600 -1.143270 0.157590 0 0 0
0.508600 -1.126070 0.157590 0 0 0
0.236390 -1.555870 0.164760 0 0 0
0.236390 -1.538680 0.164760 0 0 0
0.250720 -1.590260 0.164760 0 0 0
0.250720 -1.573070 0.164760 0 0 0
0.250720 -1.555870 0.164760 0 0 0
0.250720 -1.538680 0.164760 0 0 0
0.265040 -1.590260 0.164760 0 0 0
0.265040 -1.573070 0.164760 0 0 0
0.265040 -1.538680 0.164760 0 0 0
0.265040 -1.521490 0.164760 0 0 0
0.279370 -1.590260 0.164760 0 0 0
0.279370 -1.573070 0.164760 0 0 0
0.279370 -1.555870 0.164760 0 0 0
0.279370 -1.538680 0.164760 0 0 0
0.279370 -1.521490 0.164760 0 0 0
0.293700 -1.573070 0.164760 0 0 0
0.293700 -1.555870 0.164760 0 0 0
0.293700 -1.538680 0.164760 0 0 0
0.465620 -1.212030 0.164760 0 0 0
0.465620 -1.194840 0.164760 0 0 0
0.465620 -1.177650 0.164760 0 0 0
0.465620 -1.160460 0.164760 0 0 0
0.479940 -1.212030 0.164760 0 0 0
0.479940 -1.160460 0.164760 0 0 0
0.479940 -1.143270 0.164760 0 0 0
0.494270 -1.229230 0.164760 0 0 0
0.494270 -1.212030 0.164760 0 0 0
0.494270 -1.160460 0.164760 0 0 0
0.494270 -1.143270 0.164760 0 0 0
0.508600 -1.229230 0.164760 0 0 0
0.508600 -1.212030 0.164760 0 0 0
0.508600 -1.194840 0.164760 0 0 0
0.508600 -1.177650 0.164760 0 0 0
0.508600 -1.160460 0.164760 0 0 0
0.508600 -1.143270 0.164760 0 0 0
0.236390 -1.555870 0.171920 0 0 0
0.236390 -1.538680 0.171920 0 0 0
0.250720 -1.573070 0.171920 0 0 0
0.250720 -1.555870 0.171920 0 0 0
0.250720 -1.538680 0.171920 0 0 0
0.250720 -1.521490 0.171920 0 0 0
0.265040 -1.590260 0.171920 0 0 0
0.265040 -1.573070 0.171920 0 0 0
0.265040 -1.538680 0.171920 0 0 0
0.265040 -1.521490 0.171920 0 0 0
0.279370 -1.573070 0.171920 0 0 0
0.279370 -1.538680 0.171920 0 0 0
0.279370 -1.521490 0.171920 0 0 0
0.293700 -1.573070 0.171920 0 0 0
0.293700 -1.555870 0.171920 0 0 0
0.293700 -1.538680 0.171920 0 0 0
0.465620 -1.212030 0.171920 0 0 0
0.465620 -1.194840 0.171920 0 0 0
0.465620 -1.177650 0.171920 0 0 0
0.465620 -1.160460 0.171920 0 0 0
0.479940 -1.229230 0.171920 0 0 0
0.479940 -1.212030 0.171920 0 0 0
0.479940 -1.160460 0.171920 0 0 0
0.494270 -1.229230 0.171920 0 0 0
0.494270 -1.212030 0.171920 0 0 0
0.494270 -1.160460 0.171920 0 0 0
0.494270 -1.143270 0.171920 0 0 0
0.508600 -1.229230 0.171920 0 0 0
0.508600 -1.212030 0.171920 0 0 0
0.508600 -1.194840 0.171920 0 0 0
0.508600 -1.177650 0.171920 0 0 0
0.508600 -1.160460 0.171920 0 0 0
0.236390 -1.555870 0.179080 0 0 0
0.236390 -1.538680 0.179080 0 0 0
0.250720 -1.573070 0.179080 0 0 0
0.250720 -1.555870 0.179080 0 0 0
0.250720 -1.538680 0.179080 0 0 0
0.250720 -1.521490 0.179080 0 0 0
0.265040 -1.590260 0.179080 0 0 0
0.265040 -1.573070 0.179080 0 0 0
0.265040 -1.521490 0.179080 0 0 0
0.265040 -1.504300 0.179080 0 0 0
0.279370 -1.573070 0.179080 0 0 0
0.279370 -1.538680 0.179080 0 0 0
0.279370 -1.521490 0.179080 0 0 0
0.279370 -1.504300 0.179080 0 0 0
0.293700 -1.573070 0.179080 0 0 0
0.293700 -1.555870 0.179080 0 0 0
0.293700 -1.538680 0.179080 0 0 0
0.293700 -1.521490 0.179080 0 0 0
0.465620 -1.212030 0.179080 0 0 0
0.465620 -1.194840 0.179080 0 0 0
0.465620 -1.177650 0.179080 0 0 0
0.465620 -1.160460 0.179080 0 0 0
0.479940 -1.229230 0.179080 0 0 0
0.479940 -1.212030 0.179080 0 0 0
0.479940 -1.177650 0.179080 0 0 0
0.479940 -1.160460 0.179080 0 0 0
0.494270 -1.229230 0.179080 0 0 0
0.494270 -1.177650 0.179080 0 0 0
0.494270 -1.160460 0.179080 0 0 0
0.508600 -1.229230 0.179080 0 0 0
0.508600 -1.212030 0.179080 0 0 0
0.508600 -1.194840 0.179080 0 0 0
0.508600 -1.177650 0.179080 0 0 0
0.508600 -1.160460 0.179080 0 0 0
0.236390 -1.555870 0.186250 0 0 0
0.236390 -1.538680 0.186250 0 0 0
0.250720 -1.573070 0.186250 0 0 0
0.250720 -1.555870 0.186250 0 0 0
0.250720 -1.538680 0.186250 0 0 0
0.250720 -1.521490 0.186250 0 0 0
0.265040 -1.573070 0.186250 0 0 0
0.265040 -1.555870 0.186250 0 0 0
0.265040 -1.521490 0.186250 0 0 0
0.265040 -1.504300 0.186250 0 0 0
0.279370 -1.573070 0.186250 0 0 0
0.279370 -1.521490 0.186250 0 0 0
0.279370 -1.504300 0.186250 0 0 0
0.293700 -1.573070 0.186250 0 0 0
0.293700 -1.555870 0.186250 0 0 0
0.293700 -1.538680 0.186250 0 0 0
0.293700 -1.521490 0.186250 0 0 0
0.451290 -1.212030 0.186250 0 0 0
0.465620 -1.229230 0.186250 0 0 0
0.465620 -1.212030 0.186250 0 0 0
0.465620 -1.194840 0.186250 0 0 0
0.465620 -1.177650 0.186250 0 0 0
0.479940 -1.229230 0.186250 0 0 0
0.479940 -1.212030 0.186250 0 0 0
0.479940 -1.177650 0.186250 0 0 0
0.494270 -1.229230 0.186250 0 0 0
0.494270 -1.177650 0.186250 0 0 0
0.494270 -1.160460 0.186250 0 0 0
0.508600 -1.229230 0.186250 0 0 0
0.508600 -1.212030 0.186250 0 0 0
0.508600 -1.194840 0.186250 0 0 0
0.508600 -1.177650 0.186250 0 0 0
0.508600 -1.160460 0.186250 0 0 0
0.236390 -1.538680 0.193410 0 0 0
0.236390 -1.521490 0.193410 0 0 0
0.250720 -1.555870 0.193410 0 0 0
0.250720 -1.538680 0.193410 0 0 0
0.250720 -1.521490 0.193410 0 0 0
0.265040 -1.573070 0.193410 0 0 0
0.265040 -1.555870 0.193410 0 0 0
0.265040 -1.521490 0.193410 0 0 0
0.265040 -1.504300 0.193410 0 0 0
0.279370 -1.573070 0.193410 0 0 0
0.279370 -1.521490 0.193410 0 0 0
0.279370 -1.504300 0.193410 0 0 0
0.293700 -1.573070 0.193410 0 0 0
0.293700 -1.555870 0.193410 0 0 0
0.293700 -1.538680 0.193410 0 0 0
0.293700 -1.521490 0.193410 0 0 0
0.451290 -1.212030 0.193410 0 0 0
0.465620 -1.229230 0.193410 0 0 0
0.465620 -1.212030 0.193410 0 0 0
0.465620 -1.194840 0.193410 0 0 0
0.465620 -1.177650 0.193410 0 0 0
0.479940 -1.229230 0.193410 0 0 0
0.479940 -1.194840 0.193410 0 0 0
0.479940 -1.177650 0.193410 0 0 0
0.494270 -1.246420 0.193410 0 0 0
0.494270 -1.229230 0.193410 0 0 0
0.494270 -1.177650 0.193410 0 0 0
0.494270 -1.160460 0.193410 0 0 0
0.508600 -1.229230 0.193410 0 0 0
0.508600 -1.212030 0.193410 0 0 0
0.508600 -1.194840 0.193410 0 0 0
0.508600 -1.177650 0.193410 0 0 0
0.236390 -1.538680 0.200570 0 0 0
0.236390 -1.521490 0.200570 0 0 0
0.250720 -1.555870 0.200570 0 0 0
0.250720 -1.538680 0.200570 0 0 0
0.250720 -1.521490 0.200570 0 0 0
0.250720 -1.504300 0.200570 0 0 0
0.265040 -1.573070 0.200570 0 0 0
0.265040 -1.555870 0.200570 0 0 0
0.265040 -1.521490 0.200570 0 0 0
0.265040 -1.504300 0.200570 0 0 0
0.279370 -1.573070 0.200570 0 0 0
0.279370 -1.555870 0.200570 0 0 0
0.279370 -1.521490 0.200570 0 0 0
0.279370 -1.504300 0.200570 0 0 0
0.279370 -1.487110 0.200570 0 0 0
0.293700 -1.573070 0.200570 0 0 0
0.293700 -1.555870 0.200570 0 0 0
0.293700 -1.538680 0.200570 0 0 0
0.293700 -1.521490 0.200570 0 0 0
0.451290 -1.229230 0.200570 0 0 0
0.451290 -1.212030 0.200570 0 0 0
0.451290 -1.194840 0.200570 0 0 0
0.465620 -1.229230 0.200570 0 0 0
0.465620 -1.212030 0.200570 0 0 0
0.465620 -1.194840 0.200570 0 0 0
0.479940 -1.246420 0.200570 0 0 0
0.479940 -1.229230 0.200570 0 0 0
0.479940 -1.194840 0.200570 0 0 0
0.479940 -1.177650 0.200570 0 0 0
0.494270 -1.246420 0.200570 0 0 0
0.494270 -1.229230 0.200570 0 0 0
0.494270 -1.177650 0.200570 0 0 0
0.494270 -1.160460 0.200570 0 0 0
0.508600 -1.246420 0.200570 0 0 0
0.508600 -1.229230 0.200570 0 0 0
0.508600 -1.212030 0.200570 0 0 0
0.508600 -1.194840 0.200570 0 0 0
0.508600 -1.177650 0.200570 0 0 0
0.236390 -1.538680 0.207740 0 0 0
0.236390 -1.521490 0.207740 0 0 0
0.250720 -1.555870 0.207740 0 0 0
0.250720 -1.538680 0.207740 0 0 0
0.250720 -1.521490 0.207740 0 0 0
0.250720 -1.504300 0.207740 0 0 0
0.265040 -1.555870 0.207740 0 0 0
0.265040 -1.504300 0.207740 0 0 0
0.279370 -1.573070 0.207740 0 0 0
0.279370 -1.555870 0.207740 0 0 0
0.279370 -1.521490 0.207740 0 0 0
0.279370 -1.504300 0.207740 0 0 0
0.279370 -1.487110 0.207740 0 0 0
0.293700 -1.573070 0.207740 0 0 0
0.293700 -1.555870 0.207740 0 0 0
0.293700 -1.538680 0.207740 0 0 0
0.293700 -1.521490 0.207740 0 0 0
0.451290 -1.229230 0.207740 0 0 0
0.451290 -1.212030 0.207740 0 0 0
0.451290 -1.194840 0.207740 0 0 0
0.465620 -1.229230 0.207740 0 0 0
0.465620 -1.194840 0.207740 0 0 0
0.479940 -1.246420 0.207740 0 0 0
0.479940 -1.229230 0.207740 0 0 0
0.479940 -1.194840 0.207740 0 0 0
0.479940 -1.177650 0.207740 0 0 0
0.494270 -1.246420 0.207740 0 0 0
0.494270 -1.177650 0.207740 0 0 0
0.508600 -1.246420 0.207740 0 0 0
0.508600 -1.229230 0.207740 0 0 0
0.508600 -1.212030 0.207740 0 0 0
0.508600 -1.194840 0.207740 0 0 0
0.508600 -1.177650 0.207740 0 0 0
0.236390 -1.538680 0.214900 0 0 0
0.236390 -1.521490 0.214900 0 0 0
0.250720 -1.555870 0.214900 0 0 0
0.250720 -1.538680 0.214900 0 0 0
0.250720 -1.521490 0.214900 0 0 0
0.250720 -1.504300 0.214900 0 0 0
0.265040 -1.555870 0.214900 0 0 0
0.265040 -1.504300 0.214900 0 0 0
0.265040 -1.487110 0.214900 0 0 0
0.279370 -1.573070 0.214900 0 0 0
0.279370 -1.555870 0.214900 0 0 0
0.279370 -1.521490 0.214900 0 0 0
0.279370 -1.504300 0.214900 0 0 0
0.279370 -1.487110 0.214900 0 0 0
0.293700 -1.555870 0.214900 0 0 0
0.293700 -1.538680 0.214900 0 0 0
0.293700 -1.521490 0.214900 0 0 0
0.293700 -1.504300 0.214900 0 0 0
0.451290 -1.229230 0.214900 0 0 0
0.451290 -1.212030 0.214900 0 0 0
0.451290 -1.194840 0.214900 0 0 0
0.465620 -1.229230 0.214900 0 0 0
0.465620 -1.194840 0.214900 0 0 0
0.479940 -1.246420 0.214900 0 0 0
0.479940 -1.229230 0.214900 0 0 0
0.479940 -1.194840 0.214900 0 0 0
0.479940 -1.177650 0.214900 0 0 0
0.494270 -1.246420 0.214900 0 0 0
0.494270 -1.194840 0.214900 0 0 0
0.494270 -1.177650 0.214900 0 0 0
0.508600 -1.246420 0.214900 0 0 0
0.508600 -1.229230 0.214900 0 0 0
0.508600 -1.212030 0.214900 0 0 0
0.508600 -1.194840 0.214900 0 0 0
0.508600 -1.177650 0.214900 0 0 0
0.522920 -1.246420 0.214900 0 0 0
0.522920 -1.229230 0.214900 0 0 0
0.222060 -1.521490 0.222060 0 0 0
0.236390 -1.538680 0.222060 0 0 0
0.236390 -1.521490 0.222060 0 0 0
0.250720 -1.555870 0.222060 0 0 0
0.250720 -1.538680 0.222060 0 0 0
0.250720 -1.521490 0.222060 0 0 0
0.250720 -1.504300 0.222060 0 0 0
0.265040 -1.555870 0.222060 0 0 0
0.265040 -1.504300 0.222060 0 0 0
0.265040 -1.487110 0.222060 0 0 0
0.279370 -1.555870 0.222060 0 0 0
0.279370 -1.504300 0.222060 0 0 0
0.279370 -1.487110 0.222060 0 0 0
0.293700 -1.555870 0.222060 0 0 0
0.293700 -1.538680 0.222060 0 0 0
0.293700 -1.521490 0.222060 0 0 0
0.293700 -1.504300 0.222060 0 0 0
0.451290 -1.229230 0.222060 0 0 0
0.451290 -1.212030 0.222060 0 0 0
0.451290 -1.194840 0.222060 0 0 0
0.465620 -1.246420 0.222060 0 0 0
0.465620 -1.229230 0.222060 0 0 0
0.465620 -1.212030 0.222060 0 0 0
0.465620 -1.194840 0.222060 0 0 0
0.479940 -1.263610 0.222060 0 0 0
0.479940 -1.246420 0.222060 0 0 0
0.479940 -1.229230 0.222060 0 0 0
0.479940 -1.194840 0.222060 0 0 0
0.479940 -1.177650 0.222060 0 0 0
0.494270 -1.263610 0.222060 0 0 0
0.494270 -1.246420 0.222060 0 0 0
0.494270 -1.194840 0.222060 0 0 0
0.494270 -1.177650 0.222060 0 0 0
0.508600 -1.246420 0.222060 0 0 0
0.508600 -1.229230 0.222060 0 0 0
0.508600 -1.212030 0.222060 0 0 0
0.508600 -1.194840 0.222060 0 0 0
0.522920 -1.246420 0.222060 0 0 0
0.522920 -1.229230 0.222060 0 0 0
0.222060 -1.521490 0.229230 0 0 0
0.236390 -1.538680 0.229230 0 0 0
0.236390 -1.521490 0.229230 0 0 0
0.236390 -1.504300 0.229230 0 0 0
0.250720 -1.555870 0.229230 0 0 0
0.250720 -1.538680 0.229230 0 0 0
0.250720 -1.521490 0.229230 0 0 0
0.250720 -1.504300 0.229230 0 0 0
0.250720 -1.487110 0.229230 0 0 0
0.265040 -1.555870 0.229230 0 0 0
0.265040 -1.504300 0.229230 0 0 0
0.265040 -1.487110 0.229230 0 0 0
0.279370 -1.555870 0.229230 0 0 0
0.279370 -1.504300 0.229230 0 0 0
0.279370 -1.487110 0.229230 0 0 0
0.293700 -1.555870 0.229230 0 0 0
0.293700 -1.538680 0.229230 0 0 0
0.293700 -1.521490 0.229230 0 0 0
0.293700 -1.504300 0.229230 0 0 0
0.451290 -1.246420 0.229230 0 0 0
0.451290 -1.229230 0.229230 0 0 0
0.451290 -1.212030 0.229230 0 0 0
0.465620 -1.246420 0.229230 0 0 0
0.465620 -1.229230 0.229230 0 0 0
0.465620 -1.212030 0.229230 0 0 0
0.465620 -1.194840 0.229230 0 0 0
0.479940 -1.263610 0.229230 0 0 0
0.479940 -1.246420 0.229230 0 0 0
0.479940 -1.212030 0.229230 0 0 0
0.479940 -1.194840 0.229230 0 0 0
0.494270 -1.263610 0.229230 0 0 0
0.494270 -1.246420 0.229230 0 0 0
0.494270 -1.194840 0.229230 0 0 0
0.494270 -1.177650 0.229230 0 0 0
0.508600 -1.246420 0.229230 0 0 0
0.508600 -1.229230 0.229230 0 0 0
0.508600 -1.212030 0.229230 0 0 0
0.508600 -1.194840 0.229230 0 0 0
0.522920 -1.246420 0.229230 0 0 0
0.522920 -1.229230 0.229230 0 0 0
0.222060 -1.521490 0.236390 0 0 0
0.236390 -1.538680 0.236390 0 0 0
0.236390 -1.521490 0.236390 0 0 0
0.236390 -1.504300 0.236390 0 0 0
0.250720 -1.555870 0.236390 0 0 0
0.250720 -1.538680 0.236390 0 0 0
0.250720 -1.504300 0.236390 0 0 0
0.250720 -1.487110 0.236390 0 0 0
0.265040 -1.555870 0.236390 0 0 0
0.265040 -1.487110 0.236390 0 0 0
0.279370 -1.555870 0.236390 0 0 0
0.279370 -1.504300 0.236390 0 0 0
0.279370 -1.487110 0.236390 0 0 0
0.279370 -1.469910 0.236390 0 0 0
0.293700 -1.555870 0.236390 0 0 0
0.293700 -1.538680 0.236390 0 0 0
0.293700 -1.521490 0.236390 0 0 0
0.293700 -1.504300 0.236390 0 0 0
0.293700 -1.487110 0.236390 0 0 0
0.308020 -1.538680 0.236390 0 0 0
0.451290 -1.246420 0.236390 0 0 0
0.451290 -1.229230 0.236390 0 0 0
0.451290 -1.212030 0.236390 0 0 0
0.465620 -1.263610 0.236390 0 0 0
0.465620 -1.246420 0.236390 0 0 0
0.465620 -1.212030 0.236390 0 0 0
0.479940 -1.263610 0.236390 0 0 0
0.479940 -1.246420 0.236390 0 0 0
0.479940 -1.212030 0.236390 0 0 0
0.479940 -1.194840 0.236390 0 0 0
0.494270 -1.263610 0.236390 0 0 0
0.494270 -1.246420 0.236390 0 0 0
0.494270 -1.194840 0.236390 0 0 0
0.494270 -1.177650 0.236390 0 0 0
0.508600 -1.263610 0.236390 0 0 0
0.508600 -1.246420 0.236390 0 0 0
0.508600 -1.229230 0.236390 0 0 0
0.508600 -1.212030 0.236390 0 0 0
0.508600 -1.194840 0.236390 0 0 0
0.522920 -1.246420 0.236390 0 0 0
0.522920 -1.229230 0.236390 0 0 0
0.222060 -1.521490 0.243550 0 0 0
0.236390 -1.538680 0.243550 0 0 0
0.236390 -1.521490 0.243550 0 0 0
0.236390 -1.504300 0.243550 0 0 0
0.250720 -1.555870 0.243550 0 0 0
0.250720 -1.538680 0.243550 0 0 0
0.250720 -1.504300 0.243550 0 0 0
0.250720 -1.487110 0.243550 0 0 0
0.265040 -1.555870 0.243550 0 0 0
0.265040 -1.487110 0.243550 0 0 0
0.279370 -1.555870 0.243550 0 0 0
0.279370 -1.487110 0.243550 0 0 0
0.279370 -1.469910 0.243550 0 0 0
0.293700 -1.555870 0.243550 0 0 0
0.293700 -1.538680 0.243550 0 0 0
0.293700 -1.521490 0.243550 0 0 0
0.293700 -1.504300 0.243550 0 0 0
0.293700 -1.487110 0.243550 0 0 0
0.308020 -1.538680 0.243550 0 0 0
0.308020 -1.521490 0.243550 0 0 0
0.451290 -1.246420 0.243550 0 0 0
0.451290 -1.229230 0.243550 0 0 0
0.451290 -1.212030 0.243550 0 0 0
0.465620 -1.263610 0.243550 0 0 0
0.465620 -1.246420 0.243550 0 0 0
0.465620 -1.212030 0.243550 0 0 0
0.479940 -1.280800 0.243550 0 0 0
0.479940 -1.263610 0.243550 0 0 0
0.479940 -1.212030 0.243550 0 0 0
0.479940 -1.194840 0.243550 0 0 0
0.494270 -1.263610 0.243550 0 0 0
0.494270 -1.194840 0.243550 0 0 0
0.508600 -1.263610 0.243550 0 0 0
0.508600 -1.246420 0.243550 0 0 0
0.508600 -1.229230 0.243550 0 0 0
0.508600 -1.212030 0.243550 0 0 0
0.508600 -1.194840 0.243550 0 0 0
0.522920 -1.263610 0.243550 0 0 0
0.522920 -1.246420 0.243550 0 0 0
0.522920 -1.229230 0.243550 0 0 0
0.222060 -1.521490 0.250720 0 0 0
0.222060 -1.504300 0.250720 0 0 0
0.236390 -1.538680 0.250720 0 0 0
0.236390 -1.521490 0.250720 0 0 0
0.236390 -1.504300 0.250720 0 0 0
0.250720 -1.555870 0.250720 0 0 0
0.250720 -1.538680 0.250720 0 0 0
0.250720 -1.504300 0.250720 0 0 0
0.250720 -1.487110 0.250720 0 0 0
0.265040 -1.555870 0.250720 0 0 0
0.265040 -1.538680 0.250720 0 0 0
0.265040 -1.487110 0.250720 0 0 0
0.265040 -1.469910 0.250720 0 0 0
0.279370 -1.555870 0.250720 0 0 0
0.279370 -1.487110 0.250720 0 0 0
0.279370 -1.469910 0.250720 0 0 0
0.293700 -1.555870 0.250720 0 0 0
0.293700 -1.538680 0.250720 0 0 0
0.293700 -1.521490 0.250720 0 0 0
0.293700 -1.504300 0.250720 0 0 0
0.293700 -1.487110 0.250720 0 0 0
0.308020 -1.538680 0.250720 0 0 0
0.308020 -1.521490 0.250720 0 0 0
0.451290 -1.246420 0.250720 0 0 0
0.451290 -1.229230 0.250720 0 0 0
0.451290 -1.212030 0.250720 0 0 0
0.465620 -1.263610 0.250720 0 0 0
0.465620 -1.246420 0.250720 0 0 0
0.465620 -1.212030 0.250720 0 0 0
0.479940 -1.280800 0.250720 0 0 0
0.479940 -1.263610 0.250720 0 0 0
0.479940 -1.212030 0.250720 0 0 0
0.479940 -1.194840 0.250720 0 0 0
0.494270 -1.280800 0.250720 0 0 0
0.494270 -1.263610 0.250720 0 0 0
0.494270 -1.194840 0.250720 0 0 0
0.508600 -1.263610 0.250720 0 0 0
0.508600 -1.229230 0.250720 0 0 0
0.508600 -1.212030 0.250720 0 0 0
0.508600 -1.194840 0.250720 0 0 0
0.522920 -1.263610 0.250720 0 0 0
0.522920 -1.246420 0.250720 0 0 0
0.522920 -1.229230 0.250720 0 0 0
0.222060 -1.521490 0.257880 0 0 0
0.222060 -1.504300 0.257880 0 0 0
0.236390 -1.538680 0.257880 0 0 0
0.236390 -1.521490 0.257880 0 0 0
0.236390 -1.504300 0.257880 0 0 0
0.250720 -1.538680 0.257880 0 0 0
0.250720 -1.504300 0.257880 0 0 0
0.250720 -1.487110 0.257880 0 0 0
0.265040 -1.555870 0.257880 0 0 0
0.265040 -1.538680 0.257880 0 0 0
0.265040 -1.487110 0.257880 0 0 0
0.265040 -1.469910 0.257880 0 0 0
0.279370 -1.555870 0.257880 0 0 0
0.279370 -1.487110 0.257880 0 0 0
0.279370 -1.469910 0.257880 0 0 0
0.293700 -1.555870 0.257880 0 0 0
0.293700 -1.538680 0.257880 0 0 0
0.293700 -1.521490 0.257880 0 0 0
0.293700 -1.504300 0.257880 0 0 0
0.293700 -1.487110 0.257880 0 0 0
0.308020 -1.521490 0.257880 0 0 0
0.308020 -1.504300 0.257880 0 0 0
0.451290 -1.263610 0.257880 0 0 0
0.451290 -1.246420 0.257880 0 0 0
0.451290 -1.229230 0.257880 0 0 0
0.451290 -1.212030 0.257880 0 0 0
0.465620 -1.280800 0.257880 0 0 0
0.465620 -1.263610 0.257880 0 0 0
0.465620 -1.246420 0.257880 0 0 0
0.465620 -1.229230 0.257880 0 0 0
0.465620 -1.212030 0.257880 0 0 0
0.479940 -1.280800 0.257880 0 0 0
0.479940 -1.263610 0.257880 0 0 0
0.479940 -1.212030 0.257880 0 0 0
0.479940 -1.194840 0.257880 0 0 0
0.494270 -1.280800 0.257880 0 0 0
0.494270 -1.263610 0.257880 0 0 0
0.494270 -1.194840 0.257880 0 0 0
0.508600 -1.280800 0.257880 0 0 0
0.508600 -1.263610 0.257880 0 0 0
0.508600 -1.229230 0.257880 0 0 0
0.508600 -1.212030 0.257880 0 0 0
0.508600 -1.194840 0.257880 0 0 0
0.522920 -1.263610 0.257880 0 0 0
0.522920 -1.246420 0.257880 0 0 0
0.522920 -1.229230 0.257880 0 0 0
0.222060 -1.521490 0.265040 0 0 0
0.222060 -1.504300 0.265040 0 0 0
0.236390 -1.538680 0.265040 0 0 0
0.236390 -1.521490 0.265040 0 0 0
0.236390 -1.504300 0.265040 0 0 0
0.236390 -1.487110 0.265040 0 0 0
0.250720 -1.538680 0.265040 0 0 0
0.250720 -1.504300 0.265040 0 0 0
0.250720 -1.487110 0.265040 0 0 0
0.265040 -1.555870 0.265040 0 0 0
0.265040 -1.538680 0.265040 0 0 0
0.265040 -1.487110 0.265040 0 0 0
0.265040 -1.469910 0.265040 0 0 0
0.279370 -1.555870 0.265040 0 0 0
0.279370 -1.538680 0.265040 0 0 0
0.279370 -1.487110 0.265040 0 0 0
0.279370 -1.469910 0.265040 0 0 0
0.293700 -1.555870 0.265040 0 0 0
0.293700 -1.538680 0.265040 0 0 0
0.293700 -1.521490 0.265040 0 0 0
0.293700 -1.504300 0.265040 0 0 0
0.293700 -1.487110 0.265040 0 0 0
0.293700 -1.469910 0.265040 0 0 0
0.308020 -1.521490 0.265040 0 0 0
0.308020 -1.504300 0.265040 0 0 0
0.451290 -1.263610 0.265040 0 0 0
0.451290 -1.246420 0.265040 0 0 0
0.451290 -1.229230 0.265040 0 0 0
0.465620 -1.280800 0.265040 0 0 0
0.465620 -1.263610 0.265040 0 0 0
0.465620 -1.229230 0.265040 0 0 0
0.465620 -1.212030 0.265040 0 0 0
0.479940 -1.280800 0.265040 0 0 0
0.479940 -1.212030 0.265040 0 0 0
0.479940 -1.194840 0.265040 0 0 0
0.494270 -1.297990 0.265040 0 0 0
0.494270 -1.280800 0.265040 0 0 0
0.494270 -1.194840 0.265040 0 0 0
0.508600 -1.280800 0.265040 0 0 0
0.508600 -1.263610 0.265040 0 0 0
0.508600 -1.229230 0.265040 0 0 0
0.508600 -1.212030 0.265040 0 0 0
0.508600 -1.194840 0.265040 0 0 0
0.522920 -1.263610 0.265040 0 0 0
0.522920 -1.246420 0.265040 0 0 0
0.522920 -1.229230 0.265040 0 0 0
0.222060 -1.521490 0.272210 0 0 0
0.222060 -1.504300 0.272210 0 0 0
0.236390 -1.538680 0.272210 0 0 0
0.236390 -1.521490 0.272210 0 0 0
0.236390 -1.504300 0.272210 0 0 0
0.236390 -1.487110 0.272210 0 0 0
0.250720 -1.538680 0.272210 0 0 0
0.250720 -1.487110 0.272210 0 0 0
0.250720 -1.469910 0.272210 0 0 0
0.265040 -1.538680 0.272210 0 0 0
0.265040 -1.487110 0.272210 0 0 0
0.265040 -1.469910 0.272210 0 0 0
0.279370 -1.555870 0.272210 0 0 0
0.279370 -1.538680 0.272210 0 0 0
0.279370 -1.469910 0.272210 0 0 0
0.279370 -1.452720 0.272210 0 0 0
0.293700 -1.555870 0.272210 0 0 0
0.293700 -1.538680 0.272210 0 0 0
0.293700 -1.521490 0.272210 0 0 0
0.293700 -1.504300 0.272210 0 0 0
0.293700 -1.487110 0.272210 0 0 0
0.293700 -1.469910 0.272210 0 0 0
0.308020 -1.521490 0.272210 0 0 0
0.308020 -1.504300 0.272210 0 0 0
0.436960 -1.263610 0.272210 0 0 0
0.436960 -1.246420 0.272210 0 0 0
0.451290 -1.280800 0.272210 0 0 0
0.451290 -1.263610 0.272210 0 0 0
0.451290 -1.246420 0.272210 0 0 0
0.451290 -1.229230 0.272210 0 0 0
0.465620 -1.297990 0.272210 0 0 0
0.465620 -1.280800 0.272210 0 0 0
0.465620 -1.263610 0.272210 0 0 0
0.465620 -1.229230 0.272210 0 0 0
0.465620 -1.212030 0.272210 0 0 0
0.479940 -1.297990 0.272210 0 0 0
0.479940 -1.280800 0.272210 0 0 0
0.479940 -1.212030 0.272210 0 0 0
0.479940 -1.194840 0.272210 0 0 0
0.494270 -1.297990 0.272210 0 0 0
0.494270 -1.280800 0.272210 0 0 0
0.494270 -1.212030 0.272210 0 0 0
0.494270 -1.194840 0.272210 0 0 0
0.508600 -1.280800 0.272210 0 0 0
0.508600 -1.263610 0.272210 0 0 0
0.508600 -1.229230 0.272210 0 0 0
0.508600 -1.212030 0.272210 0 0 0
0.508600 -1.194840 0.272210 0 0 0
0.522920 -1.263610 0.272210 0 0 0
0.522920 -1.246420 0.272210 0 0 0
0.522920 -1.229230 0.272210 0 0 0
0.222060 -1.521490 0.279370 0 0 0
0.222060 -1.504300 0.279370 0 0 0
0.236390 -1.538680 0.279370 0 0 0
0.236390 -1.521490 0.279370 0 0 0
0.236390 -1.504300 0.279370 0 0 0
0.236390 -1.487110 0.279370 0 0 0
0.250720 -1.538680 0.279370 0 0 0
0.250720 -1.487110 0.279370 0 0 0
0.250720 -1.469910 0.279370 0 0 0
0.265040 -1.538680 0.279370 0 0 0
0.265040 -1.469910 0.279370 0 0 0
0.279370 -1.555870 0.279370 0 0 0
0.279370 -1.538680 0.279370 0 0 0
0.279370 -1.469910 0.279370 0 0 0
0.279370 -1.452720 0.279370 0 0 0
0.293700 -1.555870 0.279370 0 0 0
0.293700 -1.538680 0.279370 0 0 0
0.293700 -1.521490 0.279370 0 0 0
0.293700 -1.504300 0.279370 0 0 0
0.293700 -1.487110 0.279370 0 0 0
0.293700 -1.469910 0.279370 0 0 0
0.308020 -1.521490 0.279370 0 0 0
0.308020 -1.504300 0.279370 0 0 0
0.436960 -1.263610 0.279370 0 0 0
0.436960 -1.246420 0.279370 0 0 0
0.451290 -1.280800 0.279370 0 0 0
0.451290 -1.263610 0.279370 0 0 0
0.451290 -1.246420 0.279370 0 0 0
0.451290 -1.229230 0.279370 0 0 0
0.465620 -1.297990 0.279370 0 0 0
0.465620 -1.280800 0.279370 0 0 0
0.465620 -1.229230 0.279370 0 0 0
0.465620 -1.212030 0.279370 0 0 0
0.479940 -1.297990 0.279370 0 0 0
0.479940 -1.212030 0.279370 0 0 0
0.494270 -1.297990 0.279370 0 0 0
0.494270 -1.280800 0.279370 0 0 0
0.494270 -1.212030 0.279370 0 0 0
0.494270 -1.194840 0.279370 0 0 0
0.508600 -1.297990 0.279370 0 0 0
0.508600 -1.280800 0.279370 0 0 0
0.508600 -1.263610 0.279370 0 0 0
0.508600 -1.229230 0.279370 0 0 0
0.508600 -1.212030 0.279370 0 0 0
0.508600 -1.194840 0.279370 0 0 0
0.522920 -1.263610 0.279370 0 0 0
0.522920 -1.246420 0.279370 0 0 0
0.522920 -1.229230 0.279370 0 0 0
0.222060 -1.521490 0.286530 0 0 0
0.222060 -1.504300 0.286530 0 0 0
0.222060 -1.487110 0.286530 0 0 0
0.236390 -1.538680 0.286530 0 0 0
0.236390 -1.521490 0.286530 0 0 0
0.236390 -1.504300 0.286530 0 0 0
0.236390 -1.487110 0.286530 0 0 0
0.250720 -1.538680 0.286530 0 0 0
0.250720 -1.521490 0.286530 0 0 0
0.250720 -1.487110 0.286530 0 0 0
0.250720 -1.469910 0.286530 0 0 0
0.265040 -1.538680 0.286530 0 0 0
0.265040 -1.469910 0.286530 0 0 0
0.279370 -1.538680 0.286530 0 0 0
0.279370 -1.469910 0.286530 0 0 0
0.279370 -1.452720 0.286530 0 0 0
0.293700 -1.555870 0.286530 0 0 0
0.293700 -1.538680 0.286530 0 0 0
0.293700 -1.521490 0.286530 0 0 0
0.293700 -1.504300 0.286530 0 0 0
0.293700 -1.487110 0.286530 0 0 0
0.293700 -1.469910 0.286530 0 0 0
0.308020 -1.521490 0.286530 0 0 0
0.308020 -1.504300 0.286530 0 0 0
0.308020 -1.487110 0.286530 0 0 0
0.436960 -1.280800 0.286530 0 0 0
0.436960 -1.263610 0.286530 0 0 0
0.436960 -1.246420 0.286530 0 0 0
0.451290 -1.297990 0.286530 0 0 0
0.451290 -1.280800 0.286530 0 0 0
0.451290 -1.263610 0.286530 0 0 0
0.451290 -1.246420 0.286530 0 0 0
0.451290 -1.229230 0.286530 0 0 0
0.465620 -1.297990 0.286530 0 0 0
0.465620 -1.280800 0.286530 0 0 0
0.465620 -1.229230 0.286530 0 0 0
0.465620 -1.212030 0.286530 0 0 0
0.479940 -1.315190 0.286530 0 0 0
0.479940 -1.297990 0.286530 0 0 0
0.479940 -1.212030 0.286530 0 0 0
0.494270 -1.297990 0.286530 0 0 0
0.494270 -1.212030 0.286530 0 0 0
0.494270 -1.194840 0.286530 0 0 0
0.508600 -1.297990 0.286530 0 0 0
0.508600 -1.280800 0.286530 0 0 0
0.508600 -1.263610 0.286530 0 0 0
0.508600 -1.229230 0.286530 0 0 0
0.508600 -1.212030 0.286530 0 0 0
0.508600 -1.194840 0.286530 0 0 0
0.522920 -1.280800 0.286530 0 0 0
0.522920 -1.263610 0.286530 0 0 0
0.522920 -1.246420 0.286530 0 0 0
0.522920 -1.229230 0.286530 0 0 0
0.222060 -1.521490 0.293700 0 0 0
0.222060 -1.504300 0.293700 0 0 0
0.222060 -1.487110 0.293700 0 0 0
0.236390 -1.521490 0.293700 0 0 0
0.236390 -1.504300 0.293700 0 0 0
0.236390 -1.487110 0.293700 0 0 0
0.236390 -1.469910 0.293700 0 0 0
0.250720 -1.538680 0.293700 0 0 0
0.250720 -1.521490 0.293700 0 0 0
0.250720 -1.487110 0.293700 0 0 0
0.250720 -1.469910 0.293700 0 0 0
0.265040 -1.538680 0.293700 0 0 0
0.265040 -1.469910 0.293700 0 0 0
0.265040 -1.452720 0.293700 0 0 0
0.279370 -1.538680 0.293700 0 0 0
0.279370 -1.469910 0.293700 0 0 0
0.279370 -1.452720 0.293700 0 0 0
0.293700 -1.555870 0.293700 0 0 0
0.293700 -1.538680 0.293700 0 0 0
0.293700 -1.521490 0.293700 0 0 0
0.293700 -1.487110 0.293700 0 0 0
0.293700 -1.469910 0.293700 0 0 0
0.308020 -1.538680 0.293700 0 0 0
0.308020 -1.521490 0.293700 0 0 0
0.308020 -1.504300 0.293700 0 0 0
0.308020 -1.487110 0.293700 0 0 0
0.422640 -1.246420 0.293700 0 0 0
0.436960 -1.280800 0.293700 0 0 0
0.436960 -1.263610 0.293700 0 0 0
0.436960 -1.246420 0.293700 0 0 0
0.436960 -1.229230 0.293700 0 0 0
0.451290 -1.297990 0.293700 0 0 0
0.451290 -1.280800 0.293700 0 0 0
0.451290 -1.246420 0.293700 0 0 0
0.451290 -1.229230 0.293700 0 0 0
0.465620 -1.297990 0.293700 0 0 0
0.465620 -1.229230 0.293700 0 0 0
0.465620 -1.212030 0.293700 0 0 0
0.479940 -1.315190 0.293700 0 0 0
0.479940 -1.297990 0.293700 0 0 0
0.479940 -1.212030 0.293700 0 0 0
0.494270 -1.315190 0.293700 0 0 0
0.494270 -1.297990 0.293700 0 0 0
0.494270 -1.212030 0.293700 0 0 0
0.494270 -1.194840 0.293700 0 0 0
0.508600 -1.297990 0.293700 0 0 0
0.508600 -1.280800 0.293700 0 0 0
0.508600 -1.246420 0.293700 0 0 0
0.508600 -1.229230 0.293700 0 0 0
0.508600 -1.212030 0.293700 0 0 0
0.508600 -1.194840 0.293700 0 0 0
0.522920 -1.297990 0.293700 0 0 0
0.522920 -1.280800 0.293700 0 0 0
0.522920 -1.263610 0.293700 0 0 0
0.522920 -1.246420 0.293700 0 0 0
0.522920 -1.229230 0.293700 0 0 0
0.222060 -1.504300 0.300860 0 0 0
0.222060 -1.487110 0.300860 0 0 0
0.236390 -1.521490 0.300860 0 0 0
0.236390 -1.504300 0.300860 0 0 0
0.236390 -1.487110 0.300860 0 0 0
0.236390 -1.469910 0.300860 0 0 0
0.250720 -1.538680 0.300860 0 0 0
0.250720 -1.521490 0.300860 0 0 0
0.250720 -1.469910 0.300860 0 0 0
0.265040 -1.538680 0.300860 0 0 0
0.265040 -1.469910 0.300860 0 0 0
0.265040 -1.452720 0.300860 0 0 0
0.279370 -1.538680 0.300860 0 0 0
0.279370 -1.469910 0.300860 0 0 0
0.279370 -1.452720 0.300860 0 0 0
0.293700 -1.538680 0.300860 0 0 0
0.293700 -1.487110 0.300860 0 0 0
0.293700 -1.469910 0.300860 0 0 0
0.293700 -1.452720 0.300860 0 0 0
0.308020 -1.538680 0.300860 0 0 0
0.308020 -1.521490 0.300860 0 0 0
0.308020 -1.504300 0.300860 0 0 0
0.308020 -1.487110 0.300860 0 0 0
0.322350 -1.538680 0.300860 0 0 0
0.422640 -1.263610 0.300860 0 0 0
0.422640 -1.246420 0.300860 0 0 0
0.436960 -1.280800 0.300860 0 0 0
0.436960 -1.263610 0.300860 0 0 0
0.436960 -1.246420 0.300860 0 0 0
0.451290 -1.297990 0.300860 0 0 0
0.451290 -1.280800 0.300860 0 0 0
0.451290 -1.246420 0.300860 0 0 0
0.451290 -1.229230 0.300860 0 0 0
0.465620 -1.315190 0.300860 0 0 0
0.465620 -1.297990 0.300860 0 0 0
0.465620 -1.229230 0.300860 0 0 0
0.465620 -1.212030 0.300860 0 0 0
0.479940 -1.315190 0.300860 0 0 0
0.479940 -1.297990 0.300860 0 0 0
0.479940 -1.229230 0.300860 0 0 0
0.479940 -1.212030 0.300860 0 0 0
0.494270 -1.315190 0.300860 0 0 0
0.494270 -1.297990 0.300860 0 0 0
0.494270 -1.212030 0.300860 0 0 0
0.508600 -1.315190 0.300860 0 0 0
0.508600 -1.297990 0.300860 0 0 0
0.508600 -1.246420 0.300860 0 0 0
0.508600 -1.229230 0.300860 0 0 0
0.508600 -1.212030 0.300860 0 0 0
0.508600 -1.194840 0.300860 0 0 0
0.522920 -1.297990 0.300860 0 0 0
0.522920 -1.280800 0.300860 0 0 0
0.522920 -1.263610 0.300860 0 0 0
0.522920 -1.246420 0.300860 0 0 0
0.207740 -1.487110 0.308020 0 0 0
0.222060 -1.504300 0.308020 0 0 0
0.222060 -1.487110 0.308020 0 0 0
0.222060 -1.469910 0.308020 0 0 0
0.236390 -1.521490 0.308020 0 0 0
0.236390 -1.504300 0.308020 0 0 0
0.236390 -1.487110 0.308020 0 0 0
0.236390 -1.469910 0.308020 0 0 0
0.250720 -1.538680 0.308020 0 0 0
0.250720 -1.521490 0.308020 0 0 0
0.250720 -1.469910 0.308020 0 0 0
0.250720 -1.452720 0.308020 0 0 0
0.265040 -1.538680 0.308020 0 0 0
0.265040 -1.469910 0.308020 0 0 0
0.265040 -1.452720 0.308020 0 0 0
0.279370 -1.538680 0.308020 0 0 0
0.279370 -1.452720 0.308020 0 0 0
0.293700 -1.538680 0.308020 0 0 0
0.293700 -1.487110 0.308020 0 0 0
0.293700 -1.469910 0.308020 0 0 0
0.293700 -1.452720 0.308020 0 0 0
0.308020 -1.538680 0.308020 0 0 0
0.308020 -1.521490 0.308020 0 0 0
0.308020 -1.504300 0.308020 0 0 0
0.308020 -1.487110 0.308020 0 0 0
0.322350 -1.538680 0.308020 0 0 0
0.322350 -1.521490 0.308020 0 0 0
0.422640 -1.263610 0.308020 0 0 0
0.422640 -1.246420 0.308020 0 0 0
0.436960 -1.280800 0.308020 0 0 0
0.436960 -1.263610 0.308020 0 0 0
0.436960 -1.246420 0.308020 0 0 0
0.451290 -1.297990 0.308020 0 0 0
0.451290 -1.280800 0.308020 0 0 0
0.451290 -1.246420 0.308020 0 0 0
0.451290 -1.229230 0.308020 0 0 0
0.465620 -1.315190 0.308020 0 0 0
0.465620 -1.297990 0.308020 0 0 0
0.465620 -1.229230 0.308020 0 0 0
0.479940 -1.332380 0.308020 0 0 0
0.479940 -1.315190 0.308020 0 0 0
0.479940 -1.229230 0.308020 0 0 0
0.479940 -1.212030 0.308020 0 0 0
0.494270 -1.315190 0.308020 0 0 0
0.494270 -1.212030 0.308020 0 0 0
0.508600 -1.315190 0.308020 0 0 0
0.508600 -1.297990 0.308020 0 0 0
0.508600 -1.246420 0.308020 0 0 0
0.508600 -1.229230 0.308020 0 0 0
0.508600 -1.212030 0.308020 0 0 0
0.522920 -1.297990 0.308020 0 0 0
0.522920 -1.280800 0.308020 0 0 0
0.522920 -1.263610 0.308020 0 0 0
0.522920 -1.246420 0.308020 0 0 0
0.207740 -1.487110 0.315190 0 0 0
0.222060 -1.504300 0.315190 0 0 0
0.222060 -1.487110 0.315190 0 0 0
0.222060 -1.469910 0.315190 0 0 0
0.236390 -1.521490 0.315190 0 0 0
0.236390 -1.504300 0.315190 0 0 0
0.236390 -1.469910 0.315190 0 0 0
0.250720 -1.538680 0.315190 0 0 0
0.250720 -1.521490 0.315190 0 0 0
0.250720 -1.469910 0.315190 0 0 0
0.250720 -1.452720 0.315190 0 0 0
0.265040 -1.538680 0.315190 0 0 0
0.265040 -1.452720 0.315190 0 0 0
0.279370 -1.538680 0.315190 0 0 0
0.279370 -1.452720 0.315190 0 0 0
0.293700 -1.538680 0.315190 0 0 0
0.293700 -1.487110 0.315190 0 0 0
0.293700 -1.469910 0.315190 0 0 0
0.293700 -1.452720 0.315190 0 0 0
0.308020 -1.538680 0.315190 0 0 0
0.308020 -1.521490 0.315190 0 0 0
0.308020 -1.504300 0.315190 0 0 0
0.308020 -1.487110 0.315190 0 0 0
0.322350 -1.538680 0.315190 0 0 0
0.322350 -1.521490 0.315190 0 0 0
0.322350 -1.504300 0.315190 0 0 0
0.336680 -1.521490 0.315190 0 0 0
0.422640 -1.280800 0.315190 0 0 0
0.422640 -1.263610 0.315190 0 0 0
0.422640 -1.246420 0.315190 0 0 0
0.436960 -1.297990 0.315190 0 0 0
0.436960 -1.280800 0.315190 0 0 0
0.436960 -1.263610 0.315190 0 0 0
0.436960 -1.246420 0.315190 0 0 0
0.451290 -1.315190 0.315190 0 0 0
0.451290 -1.297990 0.315190 0 0 0
0.451290 -1.280800 0.315190 0 0 0
0.451290 -1.246420 0.315190 0 0 0
0.451290 -1.229230 0.315190 0 0 0
0.465620 -1.315190 0.315190 0 0 0
0.465620 -1.297990 0.315190 0 0 0
0.465620 -1.229230 0.315190 0 0 0
0.479940 -1.332380 0.315190 0 0 0
0.479940 -1.315190 0.315190 0 0 0
0.479940 -1.229230 0.315190 0 0 0
0.479940 -1.212030 0.315190 0 0 0
0.494270 -1.332380 0.315190 0 0 0
0.494270 -1.315190 0.315190 0 0 0
0.494270 -1.212030 0.315190 0 0 0
0.508600 -1.315190 0.315190 0 0 0
0.508600 -1.297990 0.315190 0 0 0
0.508600 -1.246420 0.315190 0 0 0
0.508600 -1.229230 0.315190 0 0 0
0.508600 -1.212030 0.315190 0 0 0
0.522920 -1.297990 0.315190 0 0 0
0.522920 -1.280800 0.315190 0 0 0
0.522920 -1.263610 0.315190 0 0 0
0.522920 -1.246420 0.315190 0 0 0
0.207740 -1.487110 0.322350 0 0 0
0.207740 -1.469910 0.322350 0 0 0
0.222060 -1.504300 0.322350 0 0 0
0.222060 -1.487110 0.322350 0 0 0
0.222060 -1.469910 0.322350 0 0 0
0.236390 -1.521490 0.322350 0 0 0
0.236390 -1.504300 0.322350 0 0 0
0.236390 -1.469910 0.322350 0 0 0
0.250720 -1.538680 0.322350 0 0 0
0.250720 -1.521490 0.322350 0 0 0
0.250720 -1.469910 0.322350 0 0 0
0.250720 -1.452720 0.322350 0 0 0
0.265040 -1.538680 0.322350 0 0 0
0.265040 -1.452720 0.322350 0 0 0
0.279370 -1.538680 0.322350 0 0 0
0.279370 -1.452720 0.322350 0 0 0
0.293700 -1.538680 0.322350 0 0 0
0.293700 -1.487110 0.322350 0 0 0
0.293700 -1.469910 0.322350 0 0 0
0.293700 -1.452720 0.322350 0 0 0
0.308020 -1.538680 0.322350 0 0 0
0.308020 -1.521490 0.322350 0 0 0
0.308020 -1.504300 0.322350 0 0 0
0.308020 -1.487110 0.322350 0 0 0
0.308020 -1.469910 0.322350 0 0 0
0.322350 -1.521490 0.322350 0 0 0
0.322350 -1.504300 0.322350 0 0 0
0.336680 -1.521490 0.322350 0 0 0
0.422640 -1.297990 0.322350 0 0 0
0.422640 -1.280800 0.322350 0 0 0
0.422640 -1.263610 0.322350 0 0 0
0.436960 -1.297990 0.322350 0 0 0
0.436960 -1.280800 0.322350 0 0 0
0.436960 -1.263610 0.322350 0 0 0
0.436960 -1.246420 0.322350 0 0 0
0.451290 -1.315190 0.322350 0 0 0
0.451290 -1.297990 0.322350 0 0 0
0.451290 -1.246420 0.322350 0 0 0
0.451290 -1.229230 0.322350 0 0 0
0.465620 -1.332380 0.322350 0 0 0
0.465620 -1.315190 0.322350 0 0 0
0.465620 -1.229230 0.322350 0 0 0
0.479940 -1.332380 0.322350 0 0 0
0.479940 -1.315190 0.322350 0 0 0
0.479940 -1.229230 0.322350 0 0 0
0.479940 -1.212030 0.322350 0 0 0
0.494270 -1.332380 0.322350 0 0 0
0.494270 -1.315190 0.322350 0 0 0
0.494270 -1.229230 0.322350 0 0 0
0.494270 -1.212030 0.322350 0 0 0
0.508600 -1.315190 0.322350 0 0 0
0.508600 -1.297990 0.322350 0 0 0
0.508600 -1.246420 0.322350 0 0 0
0.508600 -1.229230 0.322350 0 0 0
0.508600 -1.212030 0.322350 0 0 0
0.522920 -1.315190 0.322350 0 0 0
0.522920 -1.297990 0.322350 0 0 0
0.522920 -1.280800 0.322350 0 0 0
0.522920 -1.263610 0.322350 0 0 0
0.522920 -1.246420 0.322350 0 0 0
0.207740 -1.487110 0.329510 0 0 0
0.207740 -1.469910 0.329510 0 0 0
0.222060 -1.504300 0.329510 0 0 0
0.222060 -1.487110 0.329510 0 0 0
0.222060 -1.469910 0.329510 0 0 0
0.236390 -1.521490 0.329510 0 0 0
0.236390 -1.504300 0.329510 0 0 0
0.236390 -1.469910 0.329510 0 0 0
0.236390 -1.452720 0.329510 0 0 0
0.250720 -1.538680 0.329510 0 0 0
0.250720 -1.521490 0.329510 0 0 0
0.250720 -1.469910 0.329510 0 0 0
0.250720 -1.452720 0.329510 0 0 0
0.265040 -1.538680 0.329510 0 0 0
0.265040 -1.452720 0.329510 0 0 0
0.279370 -1.538680 0.329510 0 0 0
0.279370 -1.452720 0.329510 0 0 0
0.293700 -1.538680 0.329510 0 0 0
0.293700 -1.469910 0.329510 0 0 0
0.293700 -1.452720 0.329510 0 0 0
0.293700 -1.435530 0.329510 0 0 0
0.308020 -1.538680 0.329510 0 0 0
0.308020 -1.521490 0.329510 0 0 0
0.308020 -1.504300 0.329510 0 0 0
0.308020 -1.487110 0.329510 0 0 0
0.308020 -1.469910 0.329510 0 0 0
0.322350 -1.521490 0.329510 0 0 0
0.322350 -1.504300 0.329510 0 0 0
0.422640 -1.297990 0.329510 0 0 0
0.422640 -1.280800 0.329510 0 0 0
0.422640 -1.263610 0.329510 0 0 0
0.436960 -1.315190 0.329510 0 0 0
0.436960 -1.297990 0.329510 0 0 0
0.436960 -1.263610 0.329510 0 0 0
0.436960 -1.246420 0.329510 0 0 0
0.451290 -1.332380 0.329510 0 0 0
0.451290 -1.315190 0.329510 0 0 0
0.451290 -1.297990 0.329510 0 0 0
0.451290 -1.246420 0.329510 0 0 0
0.451290 -1.229230 0.329510 0 0 0
0.465620 -1.332380 0.329510 0 0 0
0.465620 -1.315190 0.329510 0 0 0
0.465620 -1.229230 0.329510 0 0 0
0.465620 -1.212030 0.329510 0 0 0
0.479940 -1.332380 0.329510 0 0 0
0.479940 -1.229230 0.329510 0 0 0
0.479940 -1.212030 0.329510 0 0 0
0.494270 -1.332380 0.329510 0 0 0
0.494270 -1.315190 0.329510 0 0 0
0.494270 -1.229230 0.329510 0 0 0
0.494270 -1.212030 0.329510 0 0 0
0.508600 -1.332380 0.329510 0 0 0
0.508600 -1.315190 0.329510 0 0 0
0.508600 -1.246420 0.329510 0 0 0
0.508600 -1.229230 0.329510 0 0 0
0.522920 -1.315190 0.329510 0 0 0
0.522920 -1.297990 0.329510 0 0 0
0.522920 -1.280800 0.329510 0 0 0
0.522920 -1.263610 0.329510 0 0 0
0.522920 -1.246420 0.329510 0 0 0
0.207740 -1.487110 0.336680 0 0 0
0.207740 -1.469910 0.336680 0 0 0
0.222060 -1.504300 0.336680 0 0 0
0.222060 -1.487110 0.336680 0 0 0
0.222060 -1.469910 0.336680 0 0 0
0.236390 -1.521490 0.336680 0 0 0
0.236390 -1.504300 0.336680 0 0 0
0.236390 -1.469910 0.336680 0 0 0
0.236390 -1.452720 0.336680 0 0 0
0.250720 -1.538680 0.336680 0 0 0
0.250720 -1.521490 0.336680 0 0 0
0.250720 -1.452720 0.336680 0 0 0
0.265040 -1.538680 0.336680 0 0 0
0.265040 -1.521490 0.336680 0 0 0
0.265040 -1.452720 0.336680 0 0 0
0.279370 -1.538680 0.336680 0 0 0
0.279370 -1.452720 0.336680 0 0 0
0.293700 -1.538680 0.336680 0 0 0
0.293700 -1.469910 0.336680 0 0 0
0.293700 -1.452720 0.336680 0 0 0
0.293700 -1.435530 0.336680 0 0 0
0.308020 -1.538680 0.336680 0 0 0
0.308020 -1.521490 0.336680 0 0 0
0.308020 -1.504300 0.336680 0 0 0
0.308020 -1.487110 0.336680 0 0 0
0.308020 -1.469910 0.336680 0 0 0
0.322350 -1.521490 0.336680 0 0 0
0.322350 -1.504300 0.336680 0 0 0
0.422640 -1.315190 0.336680 0 0 0
0.422640 -1.297990 0.336680 0 0 0
0.422640 -1.280800 0.336680 0 0 0
0.422640 -1.263610 0.336680 0 0 0
0.436960 -1.315190 0.336680 0 0 0
0.436960 -1.297990 0.336680 0 0 0
0.436960 -1.263610 0.336680 0 0 0
0.436960 -1.246420 0.336680 0 0 0
0.451290 -1.332380 0.336680 0 0 0
0.451290 -1.315190 0.336680 0 0 0
0.451290 -1.246420 0.336680 0 0 0
0.451290 -1.229230 0.336680 0 0 0
0.465620 -1.349570 0.336680 0 0 0
0.465620 -1.332380 0.336680 0 0 0
0.465620 -1.229230 0.336680 0 0 0
0.465620 -1.212030 0.336680 0 0 0
0.479940 -1.332380 0.336680 0 0 0
0.479940 -1.229230 0.336680 0 0 0
0.479940 -1.212030 0.336680 0 0 0
0.494270 -1.332380 0.336680 0 0 0
0.494270 -1.229230 0.336680 0 0 0
0.508600 -1.332380 0.336680 0 0 0
0.508600 -1.315190 0.336680 0 0 0
0.508600 -1.246420 0.336680 0 0 0
0.508600 -1.229230 0.336680 0 0 0
0.522920 -1.315190 0.336680 0 0 0
0.522920 -1.297990 0.336680 0 0 0
0.522920 -1.280800 0.336680 0 0 0
0.522920 -1.263610 0.336680 0 0 0
0.522920 -1.246420 0.336680 0 0 0
0.207740 -1.487110 0.343840 0 0 0
0.207740 -1.469910 0.343840 0 0 0
0.222060 -1.504300 0.343840 0 0 0
0.222060 -1.487110 0.343840 0 0 0
0.222060 -1.469910 0.343840 0 0 0
0.222060 -1.452720 0.343840 0 0 0
0.236390 -1.521490 0.343840 0 0 0
0.236390 -1.504300 0.343840 0 0 0
0.236390 -1.469910 0.343840 0 0 0
0.236390 -1.452720 0.343840 0 0 0
0.250720 -1.521490 0.343840 0 0 0
0.250720 -1.452720 0.343840 0 0 0
0.265040 -1.538680 0.343840 0 0 0
0.265040 -1.521490 0.343840 0 0 0
0.265040 -1.452720 0.343840 0 0 0
0.279370 -1.538680 0.343840 0 0 0
0.279370 -1.452720 0.343840 0 0 0
0.279370 -1.435530 0.343840 0 0 0
0.293700 -1.538680 0.343840 0 0 0
0.293700 -1.469910 0.343840 0 0 0
0.293700 -1.452720 0.343840 0 0 0
0.293700 -1.435530 0.343840 0 0 0
0.308020 -1.538680 0.343840 0 0 0
0.308020 -1.521490 0.343840 0 0 0
0.308020 -1.504300 0.343840 0 0 0
0.308020 -1.487110 0.343840 0 0 0
0.308020 -1.469910 0.343840 0 0 0
0.322350 -1.521490 0.343840 0 0 0
0.322350 -1.504300 0.343840 0 0 0
0.422640 -1.315190 0.343840 0 0 0
0.422640 -1.297990 0.343840 0 0 0
0.422640 -1.280800 0.343840 0 0 0
0.422640 -1.263610 0.343840 0 0 0
0.422640 -1.246420 0.343840 0 0 0
0.422640 -1.229230 0.343840 0 0 0
0.436960 -1.332380 0.343840 0 0 0
0.436960 -1.315190 0.343840 0 0 0
0.436960 -1.263610 0.343840 0 0 0
0.436960 -1.246420 0.343840 0 0 0
0.436960 -1.229230 0.343840 0 0 0
0.451290 -1.332380 0.343840 0 0 0
0.451290 -1.315190 0.343840 0 0 0
0.451290 -1.246420 0.343840 0 0 0
0.451290 -1.229230 0.343840 0 0 0
0.465620 -1.349570 0.343840 0 0 0
0.465620 -1.332380 0.343840 0 0 0
0.465620 -1.229230 0.343840 0 0 0
0.465620 -1.212030 0.343840 0 0 0
0.479940 -1.349570 0.343840 0 0 0
0.479940 -1.332380 0.343840 0 0 0
0.479940 -1.229230 0.343840 0 0 0
0.479940 -1.212030 0.343840 0 0 0
0.494270 -1.332380 0.343840 0 0 0
0.494270 -1.229230 0.343840 0 0 0
0.508600 -1.332380 0.343840 0 0 0
0.508600 -1.315190 0.343840 0 0 0
0.508600 -1.246420 0.343840 0 0 0
0.508600 -1.229230 0.343840 0 0 0
0.522920 -1.315190 0.343840 0 0 0
0.522920 -1.297990 0.343840 0 0 0
0.522920 -1.280800 0.343840 0 0 0
0.522920 -1.263610 0.343840 0 0 0
0.522920 -1.246420 0.343840 0 0 0
0.207740 -1.487110 0.351000 0 0 0
0.207740 -1.469910 0.351000 0 0 0
0.222060 -1.504300 0.351000 0 0 0
0.222060 -1.487110 0.351000 0 0 0
0.222060 -1.469910 0.351000 0 0 0
0.222060 -1.452720 0.351000 0 0 0
0.236390 -1.521490 0.351000 0 0 0
0.236390 -1.504300 0.351000 0 0 0
0.236390 -1.452720 0.351000 0 0 0
0.250720 -1.521490 0.351000 0 0 0
0.250720 -1.452720 0.351000 0 0 0
0.265040 -1.538680 0.351000 0 0 0
0.265040 -1.521490 0.351000 0 0 0
0.265040 -1.452720 0.351000 0 0 0
0.279370 -1.538680 0.351000 0 0 0
0.279370 -1.521490 0.351000 0 0 0
0.279370 -1.452720 0.351000 0 0 0
0.279370 -1.435530 0.351000 0 0 0
0.293700 -1.538680 0.351000 0 0 0
0.293700 -1.521490 0.351000 0 0 0
0.293700 -1.469910 0.351000 0 0 0
0.293700 -1.452720 0.351000 0 0 0
0.293700 -1.435530 0.351000 0 0 0
0.308020 -1.538680 0.351000 0 0 0
0.308020 -1.521490 0.351000 0 0 0
0.308020 -1.504300 0.351000 0 0 0
0.308020 -1.487110 0.351000 0 0 0
0.308020 -1.469910 0.351000 0 0 0
0.322350 -1.521490 0.351000 0 0 0
0.322350 -1.504300 0.351000 0 0 0
0.408310 -1.297990 0.351000 0 0 0
0.408310 -1.280800 0.351000 0 0 0
0.422640 -1.315190 0.351000 0 0 0
0.422640 -1.297990 0.351000 0 0 0
0.422640 -1.280800 0.351000 0 0 0
0.422640 -1.263610 0.351000 0 0 0
0.422640 -1.246420 0.351000 0 0 0
0.422640 -1.229230 0.351000 0 0 0
0.436960 -1.332380 0.351000 0 0 0
0.436960 -1.315190 0.351000 0 0 0
0.436960 -1.229230 0.351000 0 0 0
0.451290 -1.349570 0.351000 0 0 0
0.451290 -1.332380 0.351000 0 0 0
0.451290 -1.229230 0.351000 0 0 0
0.465620 -1.349570 0.351000 0 0 0
0.465620 -1.332380 0.351000 0 0 0
0.465620 -1.229230 0.351000 0 0 0
0.479940 -1.349570 0.351000 0 0 0
0.479940 -1.332380 0.351000 0 0 0
0.479940 -1.229230 0.351000 0 0 0
0.479940 -1.212030 0.351000 0 0 0
0.494270 -1.332380 0.351000 0 0 0
0.494270 -1.246420 0.351000 0 0 0
0.494270 -1.229230 0.351000 0 0 0
0.508600 -1.332380 0.351000 0 0 0
0.508600 -1.315190 0.351000 0 0 0
0.508600 -1.263610 0.351000 0 0 0
0.508600 -1.246420 0.351000 0 0 0
0.508600 -1.229230 0.351000 0 0 0
0.522920 -1.315190 0.351000 0 0 0
0.522920 -1.297990 0.351000 0 0 0
0.522920 -1.280800 0.351000 0 0 0
0.522920 -1.263610 0.351000 0 0 0
0.522920 -1.246420 0.351000 0 0 0
0.207740 -1.487110 0.358170 0 0 0
0.207740 -1.469910 0.358170 0 0 0
0.222060 -1.504300 0.358170 0 0 0
0.222060 -1.487110 0.358170 0 0 0
0.222060 -1.469910 0.358170 0 0 0
0.222060 -1.452720 0.358170 0 0 0
0.236390 -1.521490 0.358170 0 0 0
0.236390 -1.504300 0.358170 0 0 0
0.236390 -1.452720 0.358170 0 0 0
0.250720 -1.521490 0.358170 0 0 0
0.250720 -1.452720 0.358170 0 0 0
0.265040 -1.521490 0.358170 0 0 0
0.265040 -1.452720 0.358170 0 0 0
0.265040 -1.435530 0.358170 0 0 0
0.279370 -1.538680 0.358170 0 0 0
0.279370 -1.521490 0.358170 0 0 0
0.279370 -1.452720 0.358170 0 0 0
0.279370 -1.435530 0.358170 0 0 0
0.293700 -1.538680 0.358170 0 0 0
0.293700 -1.521490 0.358170 0 0 0
0.293700 -1.469910 0.358170 0 0 0
0.293700 -1.452720 0.358170 0 0 0
0.293700 -1.435530 0.358170 0 0 0
0.308020 -1.521490 0.358170 0 0 0
0.308020 -1.504300 0.358170 0 0 0
0.308020 -1.487110 0.358170 0 0 0
0.308020 -1.469910 0.358170 0 0 0
0.322350 -1.521490 0.358170 0 0 0
0.322350 -1.504300 0.358170 0 0 0
0.408310 -1.297990 0.358170 0 0 0
0.408310 -1.280800 0.358170 0 0 0
0.408310 -1.263610 0.358170 0 0 0
0.422640 -1.315190 0.358170 0 0 0
0.422640 -1.297990 0.358170 0 0 0
0.422640 -1.280800 0.358170 0 0 0
0.422640 -1.263610 0.358170 0 0 0
0.422640 -1.246420 0.358170 0 0 0
0.422640 -1.229230 0.358170 0 0 0
0.436960 -1.332380 0.358170 0 0 0
0.436960 -1.315190 0.358170 0 0 0
0.436960 -1.246420 0.358170 0 0 0
0.436960 -1.229230 0.358170 0 0 0
0.451290 -1.349570 0.358170 0 0 0
0.451290 -1.332380 0.358170 0 0 0
0.451290 -1.246420 0.358170 0 0 0
0.451290 -1.229230 0.358170 0 0 0
0.465620 -1.349570 0.358170 0 0 0
0.465620 -1.229230 0.358170 0 0 0
0.479940 -1.349570 0.358170 0 0 0
0.479940 -1.332380 0.358170 0 0 0
0.479940 -1.229230 0.358170 0 0 0
0.479940 -1.212030 0.358170 0 0 0
0.494270 -1.349570 0.358170 0 0 0
0.494270 -1.332380 0.358170 0 0 0
0.494270 -1.246420 0.358170 0 0 0
0.494270 -1.229230 0.358170 0 0 0
0.508600 -1.332380 0.358170 0 0 0
0.508600 -1.315190 0.358170 0 0 0
0.508600 -1.263610 0.358170 0 0 0
0.508600 -1.246420 0.358170 0 0 0
0.522920 -1.332380 0.358170 0 0 0
0.522920 -1.315190 0.358170 0 0 0
0.522920 -1.297990 0.358170 0 0 0
0.522920 -1.280800 0.358170 0 0 0
0.522920 -1.263610 0.358170 0 0 0
0.207740 -1.487110 0.365330 0 0 0
0.207740 -1.469910 0.365330 0 0 0
0.222060 -1.504300 0.365330 0 0 0
0.222060 -1.487110 0.365330 0 0 0
0.222060 -1.469910 0.365330 0 0 0
0.222060 -1.452720 0.365330 0 0 0
0.236390 -1.521490 0.365330 0 0 0
0.236390 -1.504300 0.365330 0 0 0
0.236390 -1.452720 0.365330 0 0 0
0.250720 -1.521490 0.365330 0 0 0
0.250720 -1.452720 0.365330 0 0 0
0.265040 -1.521490 0.365330 0 0 0
0.265040 -1.452720 0.365330 0 0 0
0.265040 -1.435530 0.365330 0 0 0
0.279370 -1.521490 0.365330 0 0 0
0.279370 -1.435530 0.365330 0 0 0
0.293700 -1.538680 0.365330 0 0 0
0.293700 -1.521490 0.365330 0 0 0
0.293700 -1.469910 0.365330 0 0 0
0.293700 -1.452720 0.365330 0 0 0
0.293700 -1.435530 0.365330 0 0 0
0.308020 -1.521490 0.365330 0 0 0
0.308020 -1.504300 0.365330 0 0 0
0.308020 -1.487110 0.365330 0 0 0
0.308020 -1.469910 0.365330 0 0 0
0.322350 -1.504300 0.365330 0 0 0
0.408310 -1.297990 0.365330 0 0 0
0.408310 -1.280800 0.365330 0 0 0
0.408310 -1.263610 0.365330 0 0 0
0.408310 -1.246420 0.365330 0 0 0
0.422640 -1.332380 0.365330 0 0 0
0.422640 -1.315190 0.365330 0 0 0
0.422640 -1.297990 0.365330 0 0 0
0.422640 -1.263610 0.365330 0 0 0
0.422640 -1.246420 0.365330 0 0 0
0.436960 -1.349570 0.365330 0 0 0
0.436960 -1.332380 0.365330 0 0 0
0.436960 -1.315190 0.365330 0 0 0
0.436960 -1.246420 0.365330 0 0 0
0.451290 -1.349570 0.365330 0 0 0
0.451290 -1.332380 0.365330 0 0 0
0.451290 -1.246420 0.365330 0 0 0
0.451290 -1.229230 0.365330 0 0 0
